ply
format ascii 1.0
element vertex 694
property float x
property float y
property float z
property uchar red
property uchar green
property uchar blue
end_header
-0.8244513869285583 0.09717868268489838 -1.1887147426605225 0 220 255
-0.8213165998458862 0.09717868268489838 -1.1887147426605225 0 220 255
-0.8207547068595886 0.0974842756986618 -1.1924529075622559 0 216 255
-0.8201892971992493 0.09779179841279984 -1.1962145566940308 0 216 255
-0.8222222328186035 0.09841269999742508 -1.2038096189498901 0 212 255
-0.8190476298332214 0.09841269999742508 -1.2038096189498901 0 212 255
-0.8398692607879639 0.10130719095468521 -1.2392157316207886 0 192 255
-0.8421052694320679 0.10197368264198303 -1.2473684549331665 0 192 255
-0.8415841460227966 0.10231023281812668 -1.2514852285385132 0 192 255
-0.8382838368415833 0.10231023281812668 -1.2514852285385132 0 192 255
-0.8322368264198303 0.10197368264198303 -1.2473684549331665 0 192 255
-0.8235294222831726 0.10130719095468521 -1.2392157316207886 0 192 255
-0.8202614188194275 0.10130719095468521 -1.2392157316207886 0 192 255
-0.8169934749603271 0.10130719095468521 -1.2392157316207886 0 192 255
-0.8163934350013733 0.10163934528827667 -1.2432787418365479 0 192 255
-0.8157894611358643 0.10197368264198303 -1.2473684549331665 0 188 255
-0.8178808093070984 0.10264900326728821 -1.2556291818618774 0 184 255
-0.8172757625579834 0.1029900312423706 -1.259800672531128 0 184 255
-0.8166666626930237 0.10333333164453506 -1.2640000581741333 0 180 255
-0.8243243098258972 0.10472972691059113 -1.2810810804367065 0 176 255
-0.829351544380188 0.10580204427242279 -1.2941980361938477 0 168 255
-0.8402777910232544 0.1076388880610466 -1.3166667222976685 0 156 255
-0.8397212624549866 0.10801393538713455 -1.3212543725967407 0 156 255
-0.8391608595848083 0.10839160531759262 -1.3258742094039917 0 156 255
-0.8385964632034302 0.1087719276547432 -1.330526351928711 0 152 255
-0.8380281925201416 0.10915493220090866 -1.3352112770080566 0 152 255
-0.8374558091163635 0.10954063385725021 -1.3399293422698975 0 148 255
-0.8428571224212646 0.11071428656578064 -1.354285717010498 0 148 255
-0.842293918132782 0.1111111119389534 -1.3591398000717163 0 144 255
-0.8387096524238586 0.1111111119389534 -1.3591398000717163 0 144 255
-0.8381295204162598 0.11151079088449478 -1.364028811454773 0 144 255
-0.8345323801040649 0.11151079088449478 -1.364028811454773 0 144 255
-0.8309352397918701 0.11151079088449478 -1.364028811454773 0 144 255
-0.8273381590843201 0.11151079088449478 -1.364028811454773 0 144 255
-0.8297101259231567 0.11231884360313416 -1.373913049697876 0 144 255
-0.8260869383811951 0.11231884360313416 -1.373913049697876 0 144 255
-0.8224637508392334 0.11231884360313416 -1.373913049697876 0 140 255
-0.8158844709396362 0.11191336065530777 -1.3689531087875366 0 140 255
-0.8093525171279907 0.11151079088449478 -1.364028811454773 0 140 255
-0.8086642622947693 0.11191336065530777 -1.3689531087875366 0 140 255
-0.8079710006713867 0.11231884360313416 -1.373913049697876 0 140 255
-0.804347813129425 0.11231884360313416 -1.373913049697876 0 140 255
-0.8007246255874634 0.11231884360313416 -1.373913049697876 0 140 255
-0.800000011920929 0.11272726953029633 -1.3789091110229492 0 140 255
-0.7992700934410095 0.11313868314027786 -1.383941650390625 0 140 255
-0.7956204414367676 0.11313868314027786 -1.383941650390625 0 140 255
-0.7890909314155579 0.11272726953029633 -1.3789091110229492 0 140 255
-0.7854545712471008 0.11272726953029633 -1.3789091110229492 0 140 255
-0.7818182110786438 0.11272726953029633 -1.3789091110229492 0 140 255
-0.7810218930244446 0.11313868314027786 -1.383941650390625 0 140 255
-0.7773722410202026 0.11313868314027786 -1.383941650390625 0 136 255
-0.7709090709686279 0.11272726953029633 -1.3789091110229492 0 132 255
-0.7644927501678467 0.11231884360313416 -1.373913049697876 0 132 255
-0.7636363506317139 0.11272726953029633 -1.3789091110229492 0 132 255
-0.7599999904632568 0.11272726953029633 -1.3789091110229492 0 132 255
-0.7591241002082825 0.11313868314027786 -1.383941650390625 0 132 255
-0.7554744482040405 0.11313868314027786 -1.383941650390625 0 132 255
-0.7545787692070007 0.11355311423540115 -1.389011025428772 0 132 255
-0.7509157657623291 0.11355311423540115 -1.389011025428772 0 132 255
-0.75 0.11397058516740799 -1.3941177129745483 0 128 255
-0.7463235259056091 0.11397058516740799 -1.3941177129745483 0 128 255
-0.7426470518112183 0.11397058516740799 -1.3941177129745483 0 128 255
-0.7389705777168274 0.11397058516740799 -1.3941177129745483 0 128 255
-0.732600748538971 0.11355311423540115 -1.389011025428772 0 128 255
-0.7289377450942993 0.11355311423540115 -1.389011025428772 0 128 255
-0.7252747416496277 0.11355311423540115 -1.389011025428772 0 128 255
-0.721611738204956 0.11355311423540115 -1.389011025428772 0 128 255
-0.7179487347602844 0.11355311423540115 -1.389011025428772 0 128 255
-0.7142857313156128 0.11355311423540115 -1.389011025428772 0 128 255
-0.7106227278709412 0.11355311423540115 -1.389011025428772 0 128 255
-0.7043795585632324 0.11313868314027786 -1.383941650390625 0 128 255
-0.7007299065589905 0.11313868314027786 -1.383941650390625 0 128 255
-0.6970803141593933 0.11313868314027786 -1.383941650390625 0 132 255
-0.6909090876579285 0.11272726953029633 -1.3789091110229492 0 132 255
-0.6897810101509094 0.11313868314027786 -1.383941650390625 0 132 255
-0.6861313581466675 0.11313868314027786 -1.383941650390625 0 132 255
-0.6824817657470703 0.11313868314027786 -1.383941650390625 0 132 255
-0.6763636469841003 0.11272726953029633 -1.3789091110229492 0 132 255
-0.6727272868156433 0.11272726953029633 -1.3789091110229492 0 132 255
-0.6690909266471863 0.11272726953029633 -1.3789091110229492 0 132 255
-0.660649836063385 0.11191336065530777 -1.3689531087875366 0 136 255
-0.6570397019386292 0.11191336065530777 -1.3689531087875366 0 136 255
-0.6534296274185181 0.11191336065530777 -1.3689531087875366 0 136 255
-0.6521739363670349 0.11231884360313416 -1.373913049697876 0 136 255
-0.6485507488250732 0.11231884360313416 -1.373913049697876 0 136 255
-0.6449275612831116 0.11231884360313416 -1.373913049697876 0 136 255
-0.6413043737411499 0.11231884360313416 -1.373913049697876 0 136 255
-0.6376811861991882 0.11231884360313416 -1.373913049697876 0 136 255
-0.6340579986572266 0.11231884360313416 -1.373913049697876 0 136 255
-0.6304348111152649 0.11231884360313416 -1.373913049697876 0 136 255
-0.6268116235733032 0.11231884360313416 -1.373913049697876 0 132 255
-0.6254545450210571 0.11272726953029633 -1.3789091110229492 0 132 255
-0.6218181848526001 0.11272726953029633 -1.3789091110229492 0 132 255
-0.6204379796981812 0.11313868314027786 -1.383941650390625 0 128 255
-0.6167883276939392 0.11313868314027786 -1.383941650390625 0 128 255
-0.6131386756896973 0.11313868314027786 -1.383941650390625 0 128 255
-0.6094890236854553 0.11313868314027786 -1.383941650390625 0 128 255
-0.6058394312858582 0.11313868314027786 -1.383941650390625 0 128 255
-0.6021897792816162 0.11313868314027786 -1.383941650390625 0 128 255
-0.6007326245307922 0.11355311423540115 -1.389011025428772 0 128 255
-0.5970696210861206 0.11355311423540115 -1.389011025428772 0 128 255
-0.593406617641449 0.11355311423540115 -1.389011025428772 0 128 255
-0.5875912308692932 0.11313868314027786 -1.383941650390625 0 128 255
-0.5839415788650513 0.11313868314027786 -1.383941650390625 0 128 255
-0.5802919864654541 0.11313868314027786 -1.383941650390625 0 128 255
-0.5766423344612122 0.11313868314027786 -1.383941650390625 0 128 255
-0.5729926824569702 0.11313868314027786 -1.383941650390625 0 128 255
-0.569343090057373 0.11313868314027786 -1.383941650390625 0 128 255
-0.5656934380531311 0.11313868314027786 -1.383941650390625 0 128 255
-0.5641025900840759 0.11355311423540115 -1.389011025428772 0 128 255
-0.5625 0.11397058516740799 -1.3941177129745483 0 124 255
-0.5588235259056091 0.11397058516740799 -1.3941177129745483 0 124 255
-0.5551470518112183 0.11397058516740799 -1.3941177129745483 0 124 255
-0.5514705777168274 0.11397058516740799 -1.3941177129745483 0 124 255
-0.5477941036224365 0.11397058516740799 -1.3941177129745483 0 124 255
-0.5461254715919495 0.11439114063978195 -1.3992620706558228 0 124 255
-0.5444444417953491 0.11481481790542603 -1.4044444561004639 0 124 255
-0.5407407283782959 0.11481481790542603 -1.4044444561004639 0 124 255
-0.5390334725379944 0.115241639316082 -1.4096654653549194 0 124 255
-0.535315990447998 0.115241639316082 -1.4096654653549194 0 124 255
-0.5315985083580017 0.115241639316082 -1.4096654653549194 0 124 255
-0.5259259343147278 0.11481481790542603 -1.4044444561004639 0 124 255
-0.5222222208976746 0.11481481790542603 -1.4044444561004639 0 124 255
-0.5166051387786865 0.11439114063978195 -1.3992620706558228 0 124 255
-0.5129151344299316 0.11439114063978195 -1.3992620706558228 0 124 255
-0.509225070476532 0.11439114063978195 -1.3992620706558228 0 124 255
-0.5055350661277771 0.11439114063978195 -1.3992620706558228 0 124 255
-0.5018450021743774 0.11439114063978195 -1.3992620706558228 0 124 255
-0.49815496802330017 0.11439114063978195 -1.3992620706558228 0 124 255
-0.49264705181121826 0.11397058516740799 -1.3941177129745483 0 124 255
-0.4889705777168274 0.11397058516740799 -1.3941177129745483 0 124 255
-0.4852941036224365 0.11397058516740799 -1.3941177129745483 0 124 255
-0.48161765933036804 0.11397058516740799 -1.3941177129745483 0 124 255
-0.4779411852359772 0.11397058516740799 -1.3941177129745483 0 124 255
-0.4742647111415863 0.11397058516740799 -1.3941177129745483 0 124 255
-0.47058823704719543 0.11397058516740799 -1.3941177129745483 0 124 255
-0.468634694814682 0.11439114063978195 -1.3992620706558228 0 124 255
-0.46494466066360474 0.11439114063978195 -1.3992620706558228 0 124 255
-0.46125462651252747 0.11439114063978195 -1.3992620706558228 0 124 255
-0.4592592716217041 0.11481481790542603 -1.4044444561004639 0 124 255
-0.4555555582046509 0.11481481790542603 -1.4044444561004639 0 124 255
-0.45185184478759766 0.11481481790542603 -1.4044444561004639 0 124 255
-0.4481481611728668 0.11481481790542603 -1.4044444561004639 0 124 255
-0.4444444477558136 0.11481481790542603 -1.4044444561004639 0 124 255
-0.4407407343387604 0.11481481790542603 -1.4044444561004639 0 124 255
-0.43703705072402954 0.11481481790542603 -1.4044444561004639 0 124 255
-0.4333333373069763 0.11481481790542603 -1.4044444561004639 0 124 255
-0.42804428935050964 0.11439114063978195 -1.3992620706558228 0 124 255
-0.4243542551994324 0.11439114063978195 -1.3992620706558228 0 124 255
-0.4206642210483551 0.11439114063978195 -1.3992620706558228 0 124 255
-0.41697415709495544 0.11439114063978195 -1.3992620706558228 0 124 255
-0.4148148000240326 0.11481481790542603 -1.4044444561004639 0 120 255
-0.41263940930366516 0.115241639316082 -1.4096654653549194 0 120 255
-0.4089219272136688 0.115241639316082 -1.4096654653549194 0 120 255
-0.40671640634536743 0.11567164212465286 -1.414925456047058 0 120 255
-0.4029850661754608 0.11567164212465286 -1.414925456047058 0 116 255
-0.4007490575313568 0.11610487103462219 -1.4202247858047485 0 116 255
-0.39700374007225037 0.11610487103462219 -1.4202247858047485 0 116 255
-0.3932584226131439 0.11610487103462219 -1.4202247858047485 0 116 255
-0.3909774422645569 0.11654135584831238 -1.425563931465149 0 116 255
-0.38867923617362976 0.1169811338186264 -1.430943489074707 0 116 255
-0.3834586441516876 0.11654135584831238 -1.425563931465149 0 116 255
-0.3796992599964142 0.11654135584831238 -1.425563931465149 0 116 255
-0.37593984603881836 0.11654135584831238 -1.425563931465149 0 116 255
-0.3721804618835449 0.11654135584831238 -1.425563931465149 0 116 255
-0.3684210479259491 0.11654135584831238 -1.425563931465149 0 116 255
-0.36466166377067566 0.11654135584831238 -1.425563931465149 0 116 255
-0.3595505654811859 0.11610487103462219 -1.4202247858047485 0 116 255
-0.3571428656578064 0.11654135584831238 -1.425563931465149 0 112 255
-0.3547169864177704 0.1169811338186264 -1.430943489074707 0 112 255
-0.35361215472221375 0.11787072569131851 -1.4418251514434814 0 108 255
-0.3524904251098633 0.1187739446759224 -1.4528735876083374 0 104 255
-0.3499999940395355 0.11923076957464218 -1.4584616422653198 0 104 255
-0.3461538553237915 0.11923076957464218 -1.4584616422653198 0 104 255
-0.3409961760044098 0.1187739446759224 -1.4528735876083374 0 104 255
-0.3371647596359253 0.1187739446759224 -1.4528735876083374 0 104 255
-0.3333333432674408 0.1187739446759224 -1.4528735876083374 0 104 255
-0.3295019268989563 0.1187739446759224 -1.4528735876083374 0 104 255
-0.32692307233810425 0.11923076957464218 -1.4584616422653198 0 100 255
-0.3255814015865326 0.12015503644943237 -1.469767451286316 0 96 255
-0.32295718789100647 0.12062256783246994 -1.475486397743225 0 96 255
-0.3203125 0.12109375 -1.4812500476837158 0 92 255
-0.31889763474464417 0.12204724550247192 -1.4929134845733643 0 88 255
-0.3212851285934448 0.12449799478054047 -1.522891640663147 0 80 255
-0.3211382031440735 0.1260162591934204 -1.5414634943008423 0 72 255
-0.3183673322200775 0.12653061747550964 -1.5477551221847534 0 72 255
-0.3142857253551483 0.12653061747550964 -1.5477551221847534 0 72 255
-0.31020408868789673 0.12653061747550964 -1.5477551221847534 0 72 255
-0.30612245202064514 0.12653061747550964 -1.5477551221847534 0 72 255
-0.30327868461608887 0.12704917788505554 -1.55409836769104 0 68 255
-0.2991803288459778 0.12704917788505554 -1.55409836769104 0 68 255
-0.2950819730758667 0.12704917788505554 -1.55409836769104 0 68 255
-0.2909836173057556 0.12704917788505554 -1.55409836769104 0 68 255
-0.2880658507347107 0.12757201492786407 -1.56049382686615 0 68 255
-0.2839506268501282 0.12757201492786407 -1.56049382686615 0 68 255
-0.27983540296554565 0.12757201492786407 -1.56049382686615 0 68 255
-0.27572017908096313 0.12757201492786407 -1.56049382686615 0 68 255
-0.27272728085517883 0.12809917330741882 -1.5669422149658203 0 64 255
-0.26859503984451294 0.12809917330741882 -1.5669422149658203 0 64 255
-0.26556017994880676 0.12863071262836456 -1.5734440088272095 0 64 255
-0.26141080260276794 0.12863071262836456 -1.5734440088272095 0 64 255
-0.2572614252567291 0.12863071262836456 -1.5734440088272095 0 64 255
-0.2541666626930237 0.12916666269302368 -1.5800000429153442 0 60 255
-0.25 0.12916666269302368 -1.5800000429153442 0 60 255
-0.24583333730697632 0.12916666269302368 -1.5800000429153442 0 60 255
-0.24267782270908356 0.12970711290836334 -1.5866109132766724 0 60 255
-0.23849372565746307 0.12970711290836334 -1.5866109132766724 0 60 255
-0.23529411852359772 0.13025210797786713 -1.5932773351669312 0 60 255
-0.2310924381017685 0.13025210797786713 -1.5932773351669312 0 60 255
-0.2278480976819992 0.13080169260501862 -1.600000023841858 0 56 255
-0.2236286848783493 0.13080169260501862 -1.600000023841858 0 56 255
-0.22033898532390594 0.13135592639446259 -1.60677969455719 0 52 255
-0.21610169112682343 0.13135592639446259 -1.60677969455719 0 52 255
-0.21834060549736023 0.13537117838859558 -1.6558952331542969 0 40 255
-0.2149122804403305 0.13596491515636444 -1.6631579399108887 0 36 255
-0.21145375072956085 0.13656388223171234 -1.6704846620559692 0 36 255
-0.2070484608411789 0.13656388223171234 -1.6704846620559692 0 36 255
-0.20264317095279694 0.13656388223171234 -1.6704846620559692 0 36 255
-0.19911503791809082 0.13716813921928406 -1.6778761148452759 0 36 255
-0.1938326060771942 0.13656388223171234 -1.6704846620559692 0 36 255
-0.18942731618881226 0.13656388223171234 -1.6704846620559692 0 36 255
-0.18666666746139526 0.13777777552604675 -1.6853333711624146 0 36 255
-0.18468467891216278 0.13963964581489563 -1.7081081867218018 0 32 255
-0.18779343366622925 0.14553990960121155 -1.7802817821502686 0 32 255
-0.18309858441352844 0.14553990960121155 -1.7802817821502686 0 32 255
-0.17757008969783783 0.14485980570316315 -1.7719626426696777 0 32 255
-0.17209301888942719 0.14418604969978333 -1.763720989227295 0 32 255
-0.16438356041908264 0.14155250787734985 -1.7315069437026978 0 32 255
-0.1569506675004959 0.13901345431804657 -1.7004485130310059 0 32 255
-0.15246637165546417 0.13901345431804657 -1.7004485130310059 0 32 255
-0.1473214328289032 0.1383928507566452 -1.6928571462631226 0 32 255
-0.1428571492433548 0.1383928507566452 -1.6928571462631226 0 32 255
-0.13777777552604675 0.13777777552604675 -1.6853333711624146 0 32 255
-0.13333334028720856 0.13777777552604675 -1.6853333711624146 0 32 255
-0.1294642835855484 0.1383928507566452 -1.6928571462631226 0 32 255
-0.125 0.1383928507566452 -1.6928571462631226 0 28 255
-0.12107623368501663 0.13901345431804657 -1.7004485130310059 0 28 255
-0.1165919303894043 0.13901345431804657 -1.7004485130310059 0 28 255
-0.11261261254549026 0.13963964581489563 -1.7081081867218018 0 24 255
-0.10810811072587967 0.13963964581489563 -1.7081081867218018 0 24 255
-0.10599078238010406 0.1428571492433548 -1.7474654912948608 0 16 255
-0.08139535039663315 0.18023255467414856 -2.204651117324829 0 0 188
-0.07386363297700882 0.17613635957241058 -2.154545545578003 0 0 188
-0.06818182021379471 0.17613635957241058 -2.154545545578003 0 0 188
-0.0625 0.17613635957241058 -2.154545545578003 0 0 188
-0.05681818351149559 0.17613635957241058 -2.154545545578003 0 0 188
-0.05263157933950424 0.1812865436077118 -2.217543840408325 0 0 188
-0.011695906519889832 0.1812865436077118 -2.217543840408325 0 0 188
-0.005847953259944916 0.1812865436077118 -2.217543840408325 0 0 188
0.01923076994717121 0.14903846383094788 -1.8230769634246826 0 0 252
0.024038461968302727 0.14903846383094788 -1.8230769634246826 0 0 252
0.028436018154025078 0.14691942930221558 -1.7971564531326294 0 4 255
0.03211009129881859 0.14220184087753296 -1.7394496202468872 0 16 255
0.03652967885136604 0.14155250787734985 -1.7315069437026978 0 20 255
0.04072398319840431 0.14027149975299835 -1.7158371210098267 0 24 255
0.04524886980652809 0.14027149975299835 -1.7158371210098267 0 24 255
0.7719298005104065 0.1812865436077118 -2.217543840408325 0 0 180
0.7732558250427246 0.18023255467414856 -2.204651117324829 0 0 180
0.7790697813034058 0.18023255467414856 -2.204651117324829 0 0 180
0.7894737124443054 0.1812865436077118 -2.217543840408325 0 0 180
0.7906976938247681 0.18023255467414856 -2.204651117324829 0 0 180
-0.8670886158943176 0.09493670612573624 -1.2000000476837158 0 216 255
-0.8584905862808228 0.09433962404727936 -1.1924529075622559 0 216 255
-0.852664589881897 0.09404388815164566 -1.1887147426605225 0 220 255
-0.846875011920929 0.09375 -1.1850000619888306 0 220 255
-0.84375 0.09375 -1.1850000619888306 0 220 255
-0.8459119200706482 0.09433962404727936 -1.1924529075622559 0 220 255
-0.8427672982215881 0.09433962404727936 -1.1924529075622559 0 220 255
-0.8396226167678833 0.09433962404727936 -1.1924529075622559 0 220 255
-0.8338558077812195 0.09404388815164566 -1.1887147426605225 0 220 255
-0.8307210206985474 0.09404388815164566 -1.1887147426605225 0 220 255
-0.8275862336158752 0.09404388815164566 -1.1887147426605225 0 220 255
-0.8244513869285583 0.09404388815164566 -1.1887147426605225 0 220 255
-0.8238993883132935 0.09433962404727936 -1.1924529075622559 0 220 255
-0.8207547068595886 0.09433962404727936 -1.1924529075622559 0 216 255
-0.8201892971992493 0.09463722258806229 -1.1962145566940308 0 216 255
-0.8222222328186035 0.095238097012043 -1.2038096189498901 0 212 255
-0.8190476298332214 0.095238097012043 -1.2038096189498901 0 212 255
-0.8344155550003052 0.09740259498357773 -1.2311688661575317 0 196 255
-0.8393442630767822 0.09836065769195557 -1.2432787418365479 0 192 255
-0.8415841460227966 0.09900990128517151 -1.2514852285385132 0 192 255
-0.8382838368415833 0.09900990128517151 -1.2514852285385132 0 192 255
-0.8322368264198303 0.09868421405553818 -1.2473684549331665 0 192 255
-0.8235294222831726 0.09803921729326248 -1.2392157316207886 0 192 255
-0.8202614188194275 0.09803921729326248 -1.2392157316207886 0 192 255
-0.8169934749603271 0.09803921729326248 -1.2392157316207886 0 192 255
-0.8190789222717285 0.09868421405553818 -1.2473684549331665 0 192 255
-0.8184818625450134 0.09900990128517151 -1.2514852285385132 0 188 255
-0.8205980062484741 0.09966777265071869 -1.259800672531128 0 184 255
-0.8199999928474426 0.10000000149011612 -1.2640000581741333 0 184 255
-0.8193979859352112 0.10033445060253143 -1.268227458000183 0 180 255
-0.8271186351776123 0.10169491171836853 -1.285423755645752 0 176 255
-0.829351544380188 0.10238907486200333 -1.2941980361938477 0 168 255
-0.8402777910232544 0.1041666641831398 -1.3166667222976685 0 156 255
-0.8397212624549866 0.10452961921691895 -1.3212543725967407 0 156 255
-0.8362369537353516 0.10452961921691895 -1.3212543725967407 0 156 255
-0.8356643319129944 0.10489510744810104 -1.3258742094039917 0 152 255
-0.8350877165794373 0.10526315867900848 -1.330526351928711 0 152 255
-0.8345070481300354 0.10563380271196365 -1.3352112770080566 0 148 255
-0.8428571224212646 0.1071428582072258 -1.354285717010498 0 148 255
-0.842293918132782 0.10752688348293304 -1.3591398000717163 0 144 255
-0.8387096524238586 0.10752688348293304 -1.3591398000717163 0 144 255
-0.8381295204162598 0.10791366547346115 -1.364028811454773 0 144 255
-0.8375450968742371 0.1083032488822937 -1.3689531087875366 0 144 255
-0.8369565010070801 0.10869564861059189 -1.373913049697876 0 144 255
-0.8333333134651184 0.10869564861059189 -1.373913049697876 0 144 255
-0.8297101259231567 0.10869564861059189 -1.373913049697876 0 144 255
-0.8260869383811951 0.10869564861059189 -1.373913049697876 0 144 255
-0.8194946050643921 0.1083032488822937 -1.3689531087875366 0 140 255
-0.8129496574401855 0.10791366547346115 -1.364028811454773 0 140 255
-0.8093525171279907 0.10791366547346115 -1.364028811454773 0 140 255
-0.8057553768157959 0.10791366547346115 -1.364028811454773 0 140 255
-0.8079710006713867 0.10869564861059189 -1.373913049697876 0 140 255
-0.807272732257843 0.1090909093618393 -1.3789091110229492 0 140 255
-0.803636372089386 0.1090909093618393 -1.3789091110229492 0 140 255
-0.8058608174324036 0.10989011079072952 -1.389011025428772 0 140 255
-0.7992700934410095 0.10948905348777771 -1.383941650390625 0 140 255
-0.7956204414367676 0.10948905348777771 -1.383941650390625 0 140 255
-0.7890909314155579 0.1090909093618393 -1.3789091110229492 0 140 255
-0.7854545712471008 0.1090909093618393 -1.3789091110229492 0 140 255
-0.7846715450286865 0.10948905348777771 -1.383941650390625 0 140 255
-0.7810218930244446 0.10948905348777771 -1.383941650390625 0 140 255
-0.7773722410202026 0.10948905348777771 -1.383941650390625 0 136 255
-0.7737226486206055 0.10948905348777771 -1.383941650390625 0 132 255
-0.7672727108001709 0.1090909093618393 -1.3789091110229492 0 132 255
-0.7636363506317139 0.1090909093618393 -1.3789091110229492 0 132 255
-0.7599999904632568 0.1090909093618393 -1.3789091110229492 0 132 255
-0.7591241002082825 0.10948905348777771 -1.383941650390625 0 132 255
-0.7554744482040405 0.10948905348777771 -1.383941650390625 0 132 255
-0.7545787692070007 0.10989011079072952 -1.389011025428772 0 132 255
-0.7509157657623291 0.10989011079072952 -1.389011025428772 0 132 255
-0.75 0.11029411852359772 -1.3941177129745483 0 128 255
-0.7463235259056091 0.11029411852359772 -1.3941177129745483 0 128 255
-0.7426470518112183 0.11029411852359772 -1.3941177129745483 0 128 255
-0.7389705777168274 0.11029411852359772 -1.3941177129745483 0 128 255
-0.7352941036224365 0.11029411852359772 -1.3941177129745483 0 128 255
-0.7289377450942993 0.10989011079072952 -1.389011025428772 0 128 255
-0.7252747416496277 0.10989011079072952 -1.389011025428772 0 128 255
-0.721611738204956 0.10989011079072952 -1.389011025428772 0 128 255
-0.7179487347602844 0.10989011079072952 -1.389011025428772 0 128 255
-0.7142857313156128 0.10989011079072952 -1.389011025428772 0 128 255
-0.7106227278709412 0.10989011079072952 -1.389011025428772 0 128 255
-0.7069597244262695 0.10989011079072952 -1.389011025428772 0 128 255
-0.7007299065589905 0.10948905348777771 -1.383941650390625 0 128 255
-0.6970803141593933 0.10948905348777771 -1.383941650390625 0 132 255
-0.6934306621551514 0.10948905348777771 -1.383941650390625 0 132 255
-0.6897810101509094 0.10948905348777771 -1.383941650390625 0 132 255
-0.6861313581466675 0.10948905348777771 -1.383941650390625 0 132 255
-0.6824817657470703 0.10948905348777771 -1.383941650390625 0 132 255
-0.6788321137428284 0.10948905348777771 -1.383941650390625 0 132 255
-0.6727272868156433 0.1090909093618393 -1.3789091110229492 0 132 255
-0.6690909266471863 0.1090909093618393 -1.3789091110229492 0 132 255
-0.660649836063385 0.1083032488822937 -1.3689531087875366 0 136 255
-0.6570397019386292 0.1083032488822937 -1.3689531087875366 0 136 255
-0.6534296274185181 0.1083032488822937 -1.3689531087875366 0 136 255
-0.6498194932937622 0.1083032488822937 -1.3689531087875366 0 136 255
-0.6462093591690063 0.1083032488822937 -1.3689531087875366 0 136 255
-0.6449275612831116 0.10869564861059189 -1.373913049697876 0 136 255
-0.6413043737411499 0.10869564861059189 -1.373913049697876 0 136 255
-0.6376811861991882 0.10869564861059189 -1.373913049697876 0 136 255
-0.6340579986572266 0.10869564861059189 -1.373913049697876 0 136 255
-0.6304348111152649 0.10869564861059189 -1.373913049697876 0 136 255
-0.6290909051895142 0.1090909093618393 -1.3789091110229492 0 132 255
-0.6254545450210571 0.1090909093618393 -1.3789091110229492 0 132 255
-0.6240875720977783 0.10948905348777771 -1.383941650390625 0 132 255
-0.6204379796981812 0.10948905348777771 -1.383941650390625 0 128 255
-0.6167883276939392 0.10948905348777771 -1.383941650390625 0 128 255
-0.6131386756896973 0.10948905348777771 -1.383941650390625 0 128 255
-0.6094890236854553 0.10948905348777771 -1.383941650390625 0 128 255
-0.6058394312858582 0.10948905348777771 -1.383941650390625 0 128 255
-0.6021897792816162 0.10948905348777771 -1.383941650390625 0 128 255
-0.6007326245307922 0.10989011079072952 -1.389011025428772 0 128 255
-0.5970696210861206 0.10989011079072952 -1.389011025428772 0 128 255
-0.593406617641449 0.10989011079072952 -1.389011025428772 0 128 255
-0.5875912308692932 0.10948905348777771 -1.383941650390625 0 128 255
-0.5839415788650513 0.10948905348777771 -1.383941650390625 0 128 255
-0.5802919864654541 0.10948905348777771 -1.383941650390625 0 128 255
-0.5766423344612122 0.10948905348777771 -1.383941650390625 0 128 255
-0.5729926824569702 0.10948905348777771 -1.383941650390625 0 128 255
-0.569343090057373 0.10948905348777771 -1.383941650390625 0 128 255
-0.5656934380531311 0.10948905348777771 -1.383941650390625 0 128 255
-0.5641025900840759 0.10989011079072952 -1.389011025428772 0 128 255
-0.5625 0.11029411852359772 -1.3941177129745483 0 124 255
-0.5588235259056091 0.11029411852359772 -1.3941177129745483 0 124 255
-0.5551470518112183 0.11029411852359772 -1.3941177129745483 0 124 255
-0.5514705777168274 0.11029411852359772 -1.3941177129745483 0 124 255
-0.5477941036224365 0.11029411852359772 -1.3941177129745483 0 124 255
-0.5461254715919495 0.11070110648870468 -1.3992620706558228 0 124 255
-0.5444444417953491 0.1111111119389534 -1.4044444561004639 0 124 255
-0.5407407283782959 0.1111111119389534 -1.4044444561004639 0 124 255
-0.5370370149612427 0.1111111119389534 -1.4044444561004639 0 124 255
-0.5333333611488342 0.1111111119389534 -1.4044444561004639 0 124 255
-0.529629647731781 0.1111111119389534 -1.4044444561004639 0 124 255
-0.5239852666854858 0.11070110648870468 -1.3992620706558228 0 124 255
-0.5202952027320862 0.11070110648870468 -1.3992620706558228 0 124 255
-0.5166051387786865 0.11070110648870468 -1.3992620706558228 0 124 255
-0.5110294222831726 0.11029411852359772 -1.3941177129745483 0 124 255
-0.5073529481887817 0.11029411852359772 -1.3941177129745483 0 124 255
-0.5055350661277771 0.11070110648870468 -1.3992620706558228 0 124 255
-0.5018450021743774 0.11070110648870468 -1.3992620706558228 0 124 255
-0.49632352590560913 0.11029411852359772 -1.3941177129745483 0 124 255
-0.49264705181121826 0.11029411852359772 -1.3941177129745483 0 124 255
-0.4889705777168274 0.11029411852359772 -1.3941177129745483 0 124 255
-0.4852941036224365 0.11029411852359772 -1.3941177129745483 0 124 255
-0.48161765933036804 0.11029411852359772 -1.3941177129745483 0 124 255
-0.4779411852359772 0.11029411852359772 -1.3941177129745483 0 124 255
-0.4742647111415863 0.11029411852359772 -1.3941177129745483 0 124 255
-0.47058823704719543 0.11029411852359772 -1.3941177129745483 0 124 255
-0.46691176295280457 0.11029411852359772 -1.3941177129745483 0 124 255
-0.46494466066360474 0.11070110648870468 -1.3992620706558228 0 124 255
-0.46125462651252747 0.11070110648870468 -1.3992620706558228 0 124 255
-0.4575645625591278 0.11070110648870468 -1.3992620706558228 0 124 255
-0.45387452840805054 0.11070110648870468 -1.3992620706558228 0 124 255
-0.45185184478759766 0.1111111119389534 -1.4044444561004639 0 124 255
-0.4481481611728668 0.1111111119389534 -1.4044444561004639 0 124 255
-0.4444444477558136 0.1111111119389534 -1.4044444561004639 0 124 255
-0.4407407343387604 0.1111111119389534 -1.4044444561004639 0 124 255
-0.4354243576526642 0.11070110648870468 -1.3992620706558228 0 124 255
-0.4317343235015869 0.11070110648870468 -1.3992620706558228 0 124 255
-0.42804428935050964 0.11070110648870468 -1.3992620706558228 0 124 255
-0.4243542551994324 0.11070110648870468 -1.3992620706558228 0 124 255
-0.4206642210483551 0.11070110648870468 -1.3992620706558228 0 124 255
-0.41697415709495544 0.11070110648870468 -1.3992620706558228 0 124 255
-0.4132841229438782 0.11070110648870468 -1.3992620706558228 0 124 255
-0.41111111640930176 0.1111111119389534 -1.4044444561004639 0 120 255
-0.4089219272136688 0.11152416467666626 -1.4096654653549194 0 120 255
-0.40671640634536743 0.11194030195474625 -1.414925456047058 0 120 255
-0.40449437499046326 0.11235955357551575 -1.4202247858047485 0 116 255
-0.4007490575313568 0.11235955357551575 -1.4202247858047485 0 116 255
-0.39700374007225037 0.11235955357551575 -1.4202247858047485 0 116 255
-0.3932584226131439 0.11235955357551575 -1.4202247858047485 0 116 255
-0.3895131051540375 0.11235955357551575 -1.4202247858047485 0 116 255
-0.38576778769493103 0.11235955357551575 -1.4202247858047485 0 116 255
-0.3820224702358246 0.11235955357551575 -1.4202247858047485 0 116 255
-0.37827715277671814 0.11235955357551575 -1.4202247858047485 0 116 255
-0.3745318353176117 0.11235955357551575 -1.4202247858047485 0 116 255
-0.37078651785850525 0.11235955357551575 -1.4202247858047485 0 116 255
-0.3670412003993988 0.11235955357551575 -1.4202247858047485 0 116 255
-0.36329588294029236 0.11235955357551575 -1.4202247858047485 0 116 255
-0.3595505654811859 0.11235955357551575 -1.4202247858047485 0 116 255
-0.35580524802207947 0.11235955357551575 -1.4202247858047485 0 116 255
-0.35338345170021057 0.11278195679187775 -1.425563931465149 0 112 255
-0.35361215472221375 0.11406844109296799 -1.4418251514434814 0 108 255
-0.35114502906799316 0.11450381577014923 -1.4473283290863037 0 104 255
-0.3486590087413788 0.1149425283074379 -1.4528735876083374 0 104 255
-0.3448275923728943 0.1149425283074379 -1.4528735876083374 0 104 255
-0.3409961760044098 0.1149425283074379 -1.4528735876083374 0 104 255
-0.3371647596359253 0.1149425283074379 -1.4528735876083374 0 104 255
-0.3333333432674408 0.1149425283074379 -1.4528735876083374 0 104 255
-0.3295019268989563 0.1149425283074379 -1.4528735876083374 0 104 255
-0.32692307233810425 0.11538461595773697 -1.4584616422653198 0 100 255
-0.3255814015865326 0.11627907305955887 -1.469767451286316 0 96 255
-0.32295718789100647 0.11673151701688766 -1.475486397743225 0 96 255
-0.3203125 0.1171875 -1.4812500476837158 0 92 255
-0.31889763474464417 0.11811023950576782 -1.4929134845733643 0 88 255
-0.3212851285934448 0.1204819306731224 -1.522891640663147 0 80 255
-0.3211382031440735 0.12195122241973877 -1.5414634943008423 0 72 255
-0.3183673322200775 0.12244898080825806 -1.5477551221847534 0 72 255
-0.3142857253551483 0.12244898080825806 -1.5477551221847534 0 72 255
-0.31020408868789673 0.12244898080825806 -1.5477551221847534 0 72 255
-0.30612245202064514 0.12244898080825806 -1.5477551221847534 0 72 255
-0.30204081535339355 0.12244898080825806 -1.5477551221847534 0 72 255
-0.2991803288459778 0.12295082211494446 -1.55409836769104 0 68 255
-0.2950819730758667 0.12295082211494446 -1.55409836769104 0 68 255
-0.2909836173057556 0.12295082211494446 -1.55409836769104 0 68 255
-0.28688523173332214 0.12295082211494446 -1.55409836769104 0 68 255
-0.2839506268501282 0.12345679104328156 -1.56049382686615 0 68 255
-0.27983540296554565 0.12345679104328156 -1.56049382686615 0 68 255
-0.27572017908096313 0.12345679104328156 -1.56049382686615 0 68 255
-0.27272728085517883 0.12396693974733353 -1.5669422149658203 0 64 255
-0.26859503984451294 0.12396693974733353 -1.5669422149658203 0 64 255
-0.26556017994880676 0.12448132783174515 -1.5734440088272095 0 64 255
-0.26141080260276794 0.12448132783174515 -1.5734440088272095 0 64 255
-0.2572614252567291 0.12448132783174515 -1.5734440088272095 0 64 255
-0.2531120479106903 0.12448132783174515 -1.5734440088272095 0 64 255
-0.25 0.125 -1.5800000429153442 0 60 255
-0.24583333730697632 0.125 -1.5800000429153442 0 60 255
-0.24166665971279144 0.125 -1.5800000429153442 0 60 255
-0.23849372565746307 0.12552301585674286 -1.5866109132766724 0 60 255
-0.2343096286058426 0.12552301585674286 -1.5866109132766724 0 60 255
-0.2310924381017685 0.1260504275560379 -1.5932773351669312 0 60 255
-0.2278480976819992 0.1265822798013687 -1.600000023841858 0 56 255
-0.2236286848783493 0.1265822798013687 -1.600000023841858 0 56 255
-0.22033898532390594 0.12711864709854126 -1.60677969455719 0 52 255
-0.21610169112682343 0.12711864709854126 -1.60677969455719 0 52 255
-0.21929824352264404 0.1315789520740509 -1.6631579399108887 0 40 255
-0.2149122804403305 0.1315789520740509 -1.6631579399108887 0 36 255
-0.21145375072956085 0.13215859234333038 -1.6704846620559692 0 36 255
-0.2070484608411789 0.13215859234333038 -1.6704846620559692 0 36 255
-0.20353981852531433 0.13274335861206055 -1.6778761148452759 0 36 255
-0.19911503791809082 0.13274335861206055 -1.6778761148452759 0 36 255
-0.1946902722120285 0.13274335861206055 -1.6778761148452759 0 36 255
-0.190265491604805 0.13274335861206055 -1.6778761148452759 0 36 255
-0.1875 0.1339285671710968 -1.6928571462631226 0 36 255
-0.18552036583423615 0.13574661314487457 -1.7158371210098267 0 32 255
-0.1895734667778015 0.14218010008335114 -1.7971564531326294 0 32 255
-0.18483412265777588 0.14218010008335114 -1.7971564531326294 0 32 255
-0.17757008969783783 0.14018692076206207 -1.7719626426696777 0 32 255
-0.17209301888942719 0.13953489065170288 -1.763720989227295 0 32 255
-0.1651376187801361 0.1376146823167801 -1.7394496202468872 0 32 255
-0.1569506675004959 0.13452914357185364 -1.7004485130310059 0 32 255
-0.15246637165546417 0.13452914357185364 -1.7004485130310059 0 32 255
-0.1473214328289032 0.1339285671710968 -1.6928571462631226 0 32 255
-0.1428571492433548 0.1339285671710968 -1.6928571462631226 0 32 255
-0.13777777552604675 0.13333334028720856 -1.6853333711624146 0 32 255
-0.13333334028720856 0.13333334028720856 -1.6853333711624146 0 32 255
-0.1294642835855484 0.1339285671710968 -1.6928571462631226 0 32 255
-0.125 0.1339285671710968 -1.6928571462631226 0 28 255
-0.12107623368501663 0.13452914357185364 -1.7004485130310059 0 28 255
-0.1165919303894043 0.13452914357185364 -1.7004485130310059 0 28 255
-0.11261261254549026 0.13513512909412384 -1.7081081867218018 0 24 255
-0.10810811072587967 0.13513512909412384 -1.7081081867218018 0 24 255
-0.1055045872926712 0.1376146823167801 -1.7394496202468872 0 16 255
-0.08139535039663315 0.1744185984134674 -2.204651117324829 0 0 188
-0.07428571581840515 0.17142857611179352 -2.1668572425842285 0 0 188
-0.06818182021379471 0.17045454680919647 -2.154545545578003 0 0 188
-0.0625 0.17045454680919647 -2.154545545578003 0 0 188
-0.05714285746216774 0.17142857611179352 -2.1668572425842285 0 0 188
-0.05263157933950424 0.17543859779834747 -2.217543840408325 0 0 188
-0.047337278723716736 0.17751479148864746 -2.2437870502471924 0 0 188
-0.011695906519889832 0.17543859779834747 -2.217543840408325 0 0 192
-0.005847953259944916 0.17543859779834747 -2.217543840408325 0 0 192
0.014423076994717121 0.14423076808452606 -1.8230769634246826 0 0 252
0.01923076994717121 0.14423076808452606 -1.8230769634246826 0 0 252
0.02369668334722519 0.14218010008335114 -1.7971564531326294 0 4 255
0.027397260069847107 0.13698630034923553 -1.7315069437026978 0 20 255
0.031963471323251724 0.13698630034923553 -1.7315069437026978 0 20 255
0.03619909659028053 0.13574661314487457 -1.7158371210098267 0 24 255
0.04072398319840431 0.13574661314487457 -1.7158371210098267 0 24 255
0.04524886980652809 0.13574661314487457 -1.7158371210098267 0 24 255
0.7719298005104065 0.17543859779834747 -2.217543840408325 0 0 180
0.7777777910232544 0.17543859779834747 -2.217543840408325 0 0 180
0.7836257219314575 0.17543859779834747 -2.217543840408325 0 0 180
0.7941176295280457 0.1764705926179886 -2.23058819770813 0 0 180
0.800000011920929 0.1764705926179886 -2.23058819770813 0 0 176
-0.8670886158943176 0.0917721539735794 -1.2000000476837158 0 216 255
-0.8584905862808228 0.09119496494531631 -1.1924529075622559 0 216 255
-0.852664589881897 0.09090909361839294 -1.1887147426605225 0 220 255
-0.846875011920929 0.09062500298023224 -1.1850000619888306 0 220 255
-0.84375 0.09062500298023224 -1.1850000619888306 0 220 255
-0.8459119200706482 0.09119496494531631 -1.1924529075622559 0 220 255
-0.8427672982215881 0.09119496494531631 -1.1924529075622559 0 220 255
-0.8369905948638916 0.09090909361839294 -1.1887147426605225 0 220 255
-0.8338558077812195 0.09090909361839294 -1.1887147426605225 0 220 255
-0.8307210206985474 0.09090909361839294 -1.1887147426605225 0 220 255
-0.8275862336158752 0.09090909361839294 -1.1887147426605225 0 220 255
-0.8270440101623535 0.09119496494531631 -1.1924529075622559 0 220 255
-0.8238993883132935 0.09119496494531631 -1.1924529075622559 0 220 255
-0.8233438730239868 0.09148264676332474 -1.1962145566940308 0 216 255
-0.8227847814559937 0.0917721539735794 -1.2000000476837158 0 216 255
-0.8222222328186035 0.09206349402666092 -1.2038096189498901 0 212 255
-0.8190476298332214 0.09206349402666092 -1.2038096189498901 0 212 255
-0.8317152261734009 0.09385113418102264 -1.227184534072876 0 200 255
-0.8338761925697327 0.09446254372596741 -1.2351791858673096 0 196 255
-0.8388158082962036 0.09539473801851273 -1.2473684549331665 0 192 255
-0.8355262875556946 0.09539473801851273 -1.2473684549331665 0 192 255
-0.8322368264198303 0.09539473801851273 -1.2473684549331665 0 192 255
-0.8235294222831726 0.09477124363183975 -1.2392157316207886 0 192 255
-0.8202614188194275 0.09477124363183975 -1.2392157316207886 0 192 255
-0.8169934749603271 0.09477124363183975 -1.2392157316207886 0 192 255
-0.8190789222717285 0.09539473801851273 -1.2473684549331665 0 192 255
-0.8184818625450134 0.09570956975221634 -1.2514852285385132 0 188 255
-0.8233333230018616 0.09666666388511658 -1.2640000581741333 0 184 255
-0.8199999928474426 0.09666666388511658 -1.2640000581741333 0 184 255
-0.8193979859352112 0.09698996692895889 -1.268227458000183 0 180 255
-0.8327645063400269 0.09897611290216446 -1.2941980361938477 0 176 255
-0.8350515365600586 0.0996563583612442 -1.3030928373336792 0 168 255
-0.8402777910232544 0.1006944477558136 -1.3166667222976685 0 156 255
-0.8368055820465088 0.1006944477558136 -1.3166667222976685 0 156 255
-0.8362369537353516 0.10104529559612274 -1.3212543725967407 0 156 255
-0.8327525854110718 0.10104529559612274 -1.3212543725967407 0 156 255
-0.8321678042411804 0.10139860212802887 -1.3258742094039917 0 152 255
-0.8315789699554443 0.10175438225269318 -1.330526351928711 0 152 255
-0.8368794322013855 0.10283687710762024 -1.344680905342102 0 148 255
-0.8392857313156128 0.10357142984867096 -1.354285717010498 0 144 255
-0.8387096524238586 0.10394265502691269 -1.3591398000717163 0 144 255
-0.8411552309989929 0.10469313710927963 -1.3689531087875366 0 144 255
-0.8405796885490417 0.10507246106863022 -1.373913049697876 0 144 255
-0.8369565010070801 0.10507246106863022 -1.373913049697876 0 144 255
-0.8333333134651184 0.10507246106863022 -1.373913049697876 0 144 255
-0.8297101259231567 0.10507246106863022 -1.373913049697876 0 144 255
-0.8260869383811951 0.10507246106863022 -1.373913049697876 0 144 255
-0.8165467381477356 0.10431654751300812 -1.364028811454773 0 140 255
-0.8129496574401855 0.10431654751300812 -1.364028811454773 0 140 255
-0.8093525171279907 0.10431654751300812 -1.364028811454773 0 140 255
-0.8057553768157959 0.10431654751300812 -1.364028811454773 0 140 255
-0.8109090924263 0.10545454174280167 -1.3789091110229492 0 140 255
-0.8102189898490906 0.10583941638469696 -1.383941650390625 0 140 255
-0.8095238208770752 0.10622710734605789 -1.389011025428772 0 140 255
-0.8058608174324036 0.10622710734605789 -1.389011025428772 0 140 255
-0.8021978139877319 0.10622710734605789 -1.389011025428772 0 140 255
-0.7956204414367676 0.10583941638469696 -1.383941650390625 0 140 255
-0.7890909314155579 0.10545454174280167 -1.3789091110229492 0 140 255
-0.7854545712471008 0.10545454174280167 -1.3789091110229492 0 140 255
-0.7818182110786438 0.10545454174280167 -1.3789091110229492 0 140 255
-0.7810218930244446 0.10583941638469696 -1.383941650390625 0 140 255
-0.7773722410202026 0.10583941638469696 -1.383941650390625 0 136 255
-0.7737226486206055 0.10583941638469696 -1.383941650390625 0 132 255
-0.7700729966163635 0.10583941638469696 -1.383941650390625 0 132 255
-0.7664233446121216 0.10583941638469696 -1.383941650390625 0 132 255
-0.7627737522125244 0.10583941638469696 -1.383941650390625 0 132 255
-0.7591241002082825 0.10583941638469696 -1.383941650390625 0 132 255
-0.7554744482040405 0.10583941638469696 -1.383941650390625 0 132 255
-0.7545787692070007 0.10622710734605789 -1.389011025428772 0 132 255
-0.7509157657623291 0.10622710734605789 -1.389011025428772 0 132 255
-0.75 0.10661764442920685 -1.3941177129745483 0 128 255
-0.7463235259056091 0.10661764442920685 -1.3941177129745483 0 128 255
-0.7426470518112183 0.10661764442920685 -1.3941177129745483 0 128 255
-0.7389705777168274 0.10661764442920685 -1.3941177129745483 0 128 255
-0.7352941036224365 0.10661764442920685 -1.3941177129745483 0 128 255
-0.7316176295280457 0.10661764442920685 -1.3941177129745483 0 128 255
-0.7279411554336548 0.10661764442920685 -1.3941177129745483 0 128 255
-0.7242646813392639 0.10661764442920685 -1.3941177129745483 0 128 255
-0.7179487347602844 0.10622710734605789 -1.389011025428772 0 128 255
-0.7142857313156128 0.10622710734605789 -1.389011025428772 0 128 255
-0.7106227278709412 0.10622710734605789 -1.389011025428772 0 128 255
-0.7069597244262695 0.10622710734605789 -1.389011025428772 0 128 255
-0.7032967209815979 0.10622710734605789 -1.389011025428772 0 128 255
-0.6996337175369263 0.10622710734605789 -1.389011025428772 0 132 255
-0.6959707140922546 0.10622710734605789 -1.389011025428772 0 132 255
-0.692307710647583 0.10622710734605789 -1.389011025428772 0 132 255
-0.6886447072029114 0.10622710734605789 -1.389011025428772 0 132 255
-0.6824817657470703 0.10583941638469696 -1.383941650390625 0 132 255
-0.6788321137428284 0.10583941638469696 -1.383941650390625 0 132 255
-0.6751824617385864 0.10583941638469696 -1.383941650390625 0 132 255
-0.6690909266471863 0.10545454174280167 -1.3789091110229492 0 132 255
-0.660649836063385 0.10469313710927963 -1.3689531087875366 0 136 255
-0.6570397019386292 0.10469313710927963 -1.3689531087875366 0 136 255
-0.6534296274185181 0.10469313710927963 -1.3689531087875366 0 136 255
-0.6521739363670349 0.10507246106863022 -1.373913049697876 0 136 255
-0.6485507488250732 0.10507246106863022 -1.373913049697876 0 136 255
-0.6449275612831116 0.10507246106863022 -1.373913049697876 0 136 255
-0.6413043737411499 0.10507246106863022 -1.373913049697876 0 136 255
-0.6376811861991882 0.10507246106863022 -1.373913049697876 0 136 255
-0.6340579986572266 0.10507246106863022 -1.373913049697876 0 136 255
-0.6327272653579712 0.10545454174280167 -1.3789091110229492 0 136 255
-0.6290909051895142 0.10545454174280167 -1.3789091110229492 0 132 255
-0.6277372241020203 0.10583941638469696 -1.383941650390625 0 132 255
-0.6240875720977783 0.10583941638469696 -1.383941650390625 0 132 255
-0.622710645198822 0.10622710734605789 -1.389011025428772 0 128 255
-0.6190476417541504 0.10622710734605789 -1.389011025428772 0 128 255
-0.6131386756896973 0.10583941638469696 -1.383941650390625 0 128 255
-0.6094890236854553 0.10583941638469696 -1.383941650390625 0 128 255
-0.6058394312858582 0.10583941638469696 -1.383941650390625 0 128 255
-0.6021897792816162 0.10583941638469696 -1.383941650390625 0 128 255
-0.6007326245307922 0.10622710734605789 -1.389011025428772 0 128 255
-0.5970696210861206 0.10622710734605789 -1.389011025428772 0 128 255
-0.593406617641449 0.10622710734605789 -1.389011025428772 0 128 255
-0.5897436141967773 0.10622710734605789 -1.389011025428772 0 128 255
-0.5839415788650513 0.10583941638469696 -1.383941650390625 0 128 255
-0.5802919864654541 0.10583941638469696 -1.383941650390625 0 128 255
-0.5766423344612122 0.10583941638469696 -1.383941650390625 0 128 255
-0.5729926824569702 0.10583941638469696 -1.383941650390625 0 128 255
-0.569343090057373 0.10583941638469696 -1.383941650390625 0 128 255
-0.5656934380531311 0.10583941638469696 -1.383941650390625 0 128 255
-0.5641025900840759 0.10622710734605789 -1.389011025428772 0 128 255
-0.5625 0.10661764442920685 -1.3941177129745483 0 124 255
-0.5588235259056091 0.10661764442920685 -1.3941177129745483 0 124 255
-0.5551470518112183 0.10661764442920685 -1.3941177129745483 0 124 255
-0.5514705777168274 0.10661764442920685 -1.3941177129745483 0 124 255
-0.5477941036224365 0.10661764442920685 -1.3941177129745483 0 124 255
-0.5441176295280457 0.10661764442920685 -1.3941177129745483 0 124 255
-0.5424354076385498 0.10701107233762741 -1.3992620706558228 0 124 255
-0.5407407283782959 0.10740740597248077 -1.4044444561004639 0 124 255
-0.5370370149612427 0.10740740597248077 -1.4044444561004639 0 124 255
-0.5333333611488342 0.10740740597248077 -1.4044444561004639 0 124 255
-0.529629647731781 0.10740740597248077 -1.4044444561004639 0 124 255
-0.5239852666854858 0.10701107233762741 -1.3992620706558228 0 124 255
-0.5202952027320862 0.10701107233762741 -1.3992620706558228 0 124 255
-0.5147058963775635 0.10661764442920685 -1.3941177129745483 0 124 255
-0.5110294222831726 0.10661764442920685 -1.3941177129745483 0 124 255
-0.5073529481887817 0.10661764442920685 -1.3941177129745483 0 124 255
-0.5036764740943909 0.10661764442920685 -1.3941177129745483 0 124 255
-0.5 0.10661764442920685 -1.3941177129745483 0 124 255
-0.49632352590560913 0.10661764442920685 -1.3941177129745483 0 124 255
-0.49264705181121826 0.10661764442920685 -1.3941177129745483 0 124 255
-0.4889705777168274 0.10661764442920685 -1.3941177129745483 0 124 255
-0.4852941036224365 0.10661764442920685 -1.3941177129745483 0 124 255
-0.48161765933036804 0.10661764442920685 -1.3941177129745483 0 124 255
-0.4779411852359772 0.10661764442920685 -1.3941177129745483 0 124 255
-0.4742647111415863 0.10661764442920685 -1.3941177129745483 0 124 255
-0.47058823704719543 0.10661764442920685 -1.3941177129745483 0 124 255
-0.46691176295280457 0.10661764442920685 -1.3941177129745483 0 124 255
-0.4632352888584137 0.10661764442920685 -1.3941177129745483 0 124 255
-0.46125462651252747 0.10701107233762741 -1.3992620706558228 0 124 255
-0.4575645625591278 0.10701107233762741 -1.3992620706558228 0 124 255
-0.45387452840805054 0.10701107233762741 -1.3992620706558228 0 124 255
-0.45018449425697327 0.10701107233762741 -1.3992620706558228 0 124 255
-0.446494460105896 0.10701107233762741 -1.3992620706558228 0 124 255
-0.4428044259548187 0.10701107233762741 -1.3992620706558228 0 124 255
-0.43911439180374146 0.10701107233762741 -1.3992620706558228 0 124 255
-0.4354243576526642 0.10701107233762741 -1.3992620706558228 0 124 255
-0.4317343235015869 0.10701107233762741 -1.3992620706558228 0 124 255
-0.42804428935050964 0.10701107233762741 -1.3992620706558228 0 124 255
